//X Y Z Scalar_field Scalar_field_#2 Scalar_field_#3 Scalar_field_#4 Scalar_field_#5 Scalar_field_#6 Scalar_field_#7 Scalar_field_#8 Scalar_field_#9 Nx Ny Nz
304
-101.87400818 -99.15922546 -71.02844238 -94.212387 36.737576 -175.844986 0.058064 0.030039 0.997861 0.598151 0.799219 -0.058865 -0.798820 0.600857 0.029276
-102.10224915 -99.94524384 -71.13163757 -91.064339 17.071327 -178.343475 0.027634 0.010083 0.999567 0.293562 0.955775 -0.017757 -0.955378 0.294440 0.023605
-101.85054016 -100.65734863 -71.60267639 -92.799782 6.731877 179.800217 -0.003463 0.049254 0.998780 0.117223 0.991920 -0.048509 -0.993095 0.116899 -0.009833
-101.69689941 -101.43796539 -71.86883545 -90.517265 -0.459291 -178.727005 0.022215 0.009204 0.999711 -0.008016 0.999927 -0.009028 -0.999708 -0.007033 0.023109
-101.72932434 -102.21823883 -72.42263031 -90.121002 -4.429992 -179.558533 0.007682 0.002707 0.999967 -0.077241 0.997010 -0.002106 -0.996990 -0.077179 0.007401
-101.68879700 -102.95983887 -72.95236206 -91.896690 -1.995152 -179.680511 0.005573 0.033291 0.999430 -0.034815 0.998846 -0.033077 -0.999341 -0.035582 0.007116
-101.76803589 -103.75762939 -73.60343933 -93.401833 -3.036027 -179.798462 0.003513 0.059524 0.998221 -0.052964 0.996837 -0.059255 -0.998586 -0.052666 0.007229
-101.84483337 -104.49496460 -74.08663940 -94.807449 0.970070 179.828690 -0.002990 0.083857 0.996473 0.016930 0.996339 -0.083795 -0.999844 0.016947 -0.004984
-101.91601563 -105.25746918 -74.62981415 -95.458733 3.568447 -179.125381 0.015235 0.094172 0.995439 0.062241 0.993535 -0.094944 -0.997922 0.063742 0.009405
-101.89553833 -106.15274048 -75.08780670 -93.117569 4.780489 177.902069 -0.036480 0.057395 0.997685 0.083339 0.995046 -0.054196 -0.995831 0.081804 -0.040357
-101.91560364 -107.03582764 -75.60752106 -95.610916 9.264752 -177.050842 0.050779 0.089399 0.994701 0.160997 0.982226 -0.096497 -0.985538 0.165607 0.035901
-102.35018921 -107.78623199 -75.82113647 -95.525146 35.254745 -177.255463 0.039101 0.068662 0.996873 0.577213 0.812800 -0.078624 -0.815008 0.579409 -0.006849
-103.29926300 -108.28902435 -75.77286530 -99.192780 48.825375 -175.152222 0.055637 0.096392 0.993787 0.752707 0.649900 -0.105177 -0.656993 0.753069 -0.035322
-104.30478668 -108.90245056 -75.77764893 -102.452110 64.815155 -168.384933 0.085676 0.033298 0.995766 0.904940 0.415530 -0.091756 -0.417317 0.908738 0.006500
-105.40282440 -109.12088776 -75.77391052 -107.767372 74.138115 -164.510437 0.072993 0.049429 0.996107 0.961923 0.260283 -0.083404 -0.263428 0.964267 -0.028181
-106.47319031 -109.06718445 -75.73492432 -114.685310 76.097511 -156.180618 0.097034 0.025862 0.994945 0.970706 0.218313 -0.100345 -0.219037 0.975710 -0.003514
-107.17993927 -109.03036499 -75.71450043 115.303383 70.161934 -24.520285 0.140841 -0.035933 0.989380 0.940655 -0.306804 -0.145048 0.308766 0.951098 -0.008680
-107.26763153 -108.66104126 -75.74804688 96.635612 35.615345 -5.188470 0.073516 -0.062772 0.995317 0.582341 -0.807499 -0.093940 0.810126 0.585783 -0.023542
-106.97514343 -108.49687195 -75.78306580 92.302567 -11.874322 -0.551448 0.009418 -0.042153 0.999067 -0.205766 -0.977811 -0.039317 0.978485 -0.205564 -0.017620
-106.16871643 -108.60005951 -75.82752991 90.365021 -44.370590 -2.262757 0.028223 -0.033975 0.999024 -0.699297 -0.714817 -0.004554 0.714896 -0.697841 -0.044059
-105.00791168 -108.65721893 -75.83499146 91.950928 -59.776920 -0.633136 0.005562 -0.043584 0.999034 -0.864072 -0.503076 -0.017136 0.503557 -0.863045 -0.039791
-103.70503998 -108.48997498 -75.77719116 102.546928 -79.278389 11.723576 -0.037801 -0.017832 0.999126 -0.982543 -0.181594 -0.040415 0.182408 -0.983169 -0.010325
-102.11817932 -108.64953613 -75.86513519 98.642319 -81.091965 7.123230 -0.019202 -0.027989 0.999424 -0.987938 -0.153091 -0.023268 0.153811 -0.987811 -0.023926
-100.47698212 -108.58893585 -75.90327454 104.548111 -84.426666 14.028069 -0.023542 -0.010185 0.999671 -0.995273 -0.094006 -0.024396 0.093238 -0.995616 -0.007502
-98.86394501 -108.66822052 -75.94010162 134.134933 -87.477676 43.518795 -0.030304 -0.011232 0.999478 -0.999031 -0.031585 -0.030645 0.031518 -0.999441 -0.011184
-97.14868164 -108.78012085 -75.91875458 119.056931 -85.281784 28.340357 -0.039047 -0.013912 0.999141 -0.996611 -0.071902 -0.039950 0.072817 -0.997278 -0.011609
-95.65845490 -108.69281006 -75.85269165 -142.640839 -87.620346 125.573074 -0.033772 -0.030742 0.998957 -0.999138 0.025195 -0.033003 -0.023717 -0.999207 -0.031966
-94.31963348 -108.83214569 -75.84957123 130.234451 -82.000481 39.782707 -0.089048 -0.012638 0.995947 -0.990269 -0.106239 -0.089889 0.106876 -0.994267 -0.003239
-93.18537140 -108.75575256 -75.88429260 103.025627 -77.280029 11.758038 -0.044869 -0.026994 0.998628 -0.975458 -0.214521 -0.049627 0.216021 -0.976228 -0.017707
-92.54693604 -108.55131531 -75.87345886 95.861519 -48.887661 3.288103 -0.037714 -0.058968 0.997547 -0.753422 -0.654100 -0.067151 0.656277 -0.754228 -0.020990
-92.70313263 -108.33084106 -75.92689514 91.951981 -4.468946 -1.488250 0.025893 -0.036073 0.999014 -0.077919 -0.996381 -0.033958 0.996645 -0.076499 -0.029091
-93.65750122 -108.33930969 -75.92829895 93.348122 22.106396 -0.677658 0.010958 -0.053955 0.998483 0.376328 -0.924905 -0.054109 0.926750 0.375571 0.008973
-94.65805817 -108.16334534 -75.96147919 92.998489 40.651157 -3.260139 0.043146 -0.015228 0.998953 0.651452 -0.757651 -0.039687 0.756766 0.653253 -0.023780
-95.56351471 -107.60565948 -75.93910980 100.012772 55.883179 -10.192816 0.099254 -0.026850 0.994700 0.827896 -0.552339 -0.097519 0.552819 0.832692 -0.031867
-96.45180511 -107.15036774 -75.94402313 92.041946 41.896591 -2.639664 0.034281 -0.004858 0.999400 0.667788 -0.743879 -0.026522 0.743757 0.668120 -0.021010
-96.79154968 -106.54555511 -76.00569916 89.113258 22.122747 -1.460437 0.023610 0.025068 0.999407 0.376592 -0.926268 0.014337 0.925905 0.376352 -0.032556
-97.01093292 -105.72438049 -75.92595673 93.438660 18.251110 -3.262762 0.054052 -0.042090 0.997651 0.313182 -0.947983 -0.056962 0.947783 0.316776 -0.036894
-97.35443115 -105.10784912 -75.97527313 91.540459 3.064710 0.036973 -0.000644 -0.026917 0.999637 0.053464 -0.998209 -0.026844 0.998619 0.052451 0.003085
-97.24849701 -104.64365387 -76.28959656 92.594460 1.465421 0.279232 -0.004872 -0.045390 0.998957 0.025574 -0.998648 -0.045252 0.999671 0.025168 0.005034
-97.04370117 -103.99322510 -76.59133911 89.903496 1.087975 -0.917031 0.016002 0.001988 0.999870 0.018988 -0.999818 0.001684 0.999701 0.019206 -0.015162
-97.15831757 -103.24633789 -77.01325989 88.159996 1.229016 -0.704327 0.012290 0.032370 0.999400 0.021449 -0.999254 0.032101 0.999690 0.021184 -0.013114
-96.98861694 -102.59104156 -77.55566406 89.196327 3.362121 3.326048 -0.057918 0.010600 0.998265 0.058646 -0.998181 0.014002 0.996549 0.059771 0.057598
-96.89138794 -101.82579041 -78.07858276 88.421494 -3.052443 -0.107714 0.001877 0.027447 0.999622 -0.053250 -0.998202 0.027508 0.998623 -0.052451 -0.001028
-96.89416504 -100.94812012 -78.65168762 87.431252 6.909286 0.342300 -0.005931 0.044099 0.999010 0.120298 -0.991740 0.044493 0.992690 0.120688 0.001087
-96.96905518 -100.24543762 -79.08381653 90.291588 6.222520 -0.825437 0.014321 -0.003527 0.999891 0.108390 -0.994096 -0.005059 0.994047 0.108025 -0.014185
-97.10169983 -99.38177490 -79.62821960 91.709251 15.542723 1.615504 -0.027161 -0.037367 0.998932 0.267957 -0.963002 -0.028737 0.963340 0.265877 0.035862
-97.37678528 -98.64707184 -80.10406494 95.833710 23.684998 -1.788209 0.028577 -0.089122 0.995611 0.401708 -0.911025 -0.093080 0.914894 0.403592 0.009084
-97.74043274 -97.71883392 -80.53344727 95.139046 43.037201 -0.167820 0.002141 -0.087582 0.996155 0.682473 -0.727973 -0.065470 0.731265 0.679545 0.058903
-98.39411926 -97.11714172 -80.58958435 95.443764 61.745224 -0.947556 0.007829 -0.080355 0.996736 0.880851 -0.471258 -0.044910 0.473168 0.878344 0.067992
-99.22660828 -96.78373718 -80.50798035 105.319687 73.356064 -13.444668 0.066595 -0.042115 0.996891 0.958103 -0.276246 -0.075674 0.279702 0.959858 0.020947
-99.87359619 -96.51521301 -80.50434875 -134.826385 83.941513 -135.596573 0.073850 0.010154 0.997218 0.994415 0.074856 -0.074404 -0.074763 0.997187 -0.005265
-100.44670868 -96.69332123 -80.54140472 -98.377495 72.332146 -172.917358 0.037422 0.028351 0.998897 0.952832 0.300260 -0.044218 -0.301270 0.953403 -0.016117
-100.99708557 -97.51500702 -80.50050354 -98.889587 63.856071 -170.729645 0.070982 0.009638 0.997431 0.897690 0.435335 -0.068091 -0.435935 0.899696 0.022526
-101.57089996 -98.32935333 -80.58084106 -93.899536 34.834866 -176.627975 0.048279 0.034369 0.998242 0.571213 0.818901 -0.055820 -0.820027 0.571952 0.020673
-101.73257446 -99.23936462 -80.59960938 -92.866219 10.229198 -177.756653 0.038522 0.043023 0.998331 0.177586 0.982874 -0.049209 -0.983583 0.178093 0.029100
-101.62074280 -100.02715302 -80.59891510 -92.460777 2.300159 -179.781738 0.003806 0.042782 0.999077 0.040135 0.998273 -0.042901 -0.999209 0.039643 0.003049
-101.64360046 -100.56649780 -80.85484314 -92.815033 -4.415939 -178.008591 0.034647 0.051755 0.998059 -0.076996 0.995828 -0.048966 -0.996475 -0.074817 0.037951
-101.82743835 -101.20307922 -81.16691589 -90.526703 -9.402064 179.182098 -0.014083 0.006860 0.999877 -0.163362 0.986525 -0.009069 -0.986652 -0.162361 -0.012489
-101.70353699 -101.81791687 -81.53060150 -91.102234 -5.915643 179.954437 -0.000791 0.019154 0.999816 -0.103064 0.994491 -0.019134 -0.994569 -0.104070 0.001073
-101.80911255 -102.48918915 -82.08744812 -91.335533 -7.092895 -179.942535 0.000995 0.023431 0.999725 -0.123478 0.992078 -0.023129 -0.992323 -0.123630 0.003282
-101.78872681 -103.11890411 -82.50112915 -91.548477 -4.429980 178.381439 -0.028161 0.024831 0.999295 -0.077241 0.996648 -0.026942 -0.996554 -0.078477 -0.026876
-101.72782898 -103.78408813 -82.95280457 -91.091797 -8.640431 178.631012 -0.023620 0.015460 0.999601 -0.150233 0.988471 -0.018838 -0.988364 -0.150576 -0.021511
-101.72309113 -104.42033386 -83.44551086 -91.659142 -3.914783 179.291595 -0.012335 0.028107 0.999529 -0.068273 0.997248 -0.028886 -0.997618 -0.068330 -0.009461
-101.60293579 -105.10267639 -83.81039429 -90.897972 -5.665946 177.633728 -0.041086 0.011583 0.999088 -0.098728 0.994992 -0.015595 -0.994389 -0.098443 -0.038714
-101.51116943 -105.77092743 -84.19781494 -89.129242 -8.350994 -178.836960 0.020082 -0.012246 0.999723 -0.145237 0.989283 0.015036 -0.989221 -0.145176 0.019132
-101.26831818 -106.34359741 -84.62478638 -92.944160 -7.736985 -179.356796 0.011124 0.052869 0.998540 -0.134626 0.989589 -0.050895 -0.990941 -0.132945 0.018992
-101.42496490 -107.01006317 -85.04295349 -95.375633 1.034929 -177.963409 0.035532 0.092987 0.995033 0.018062 0.995439 -0.093670 -0.999190 0.021610 0.033958
-101.95915985 -107.59904480 -85.05026245 -91.985771 31.512232 179.978989 -0.000313 0.034843 0.999393 0.522681 0.852017 -0.029541 -0.853249 0.521203 -0.017691
-102.59569550 -107.68539429 -85.04461670 -90.450462 65.675850 -177.480545 0.018106 -0.032201 0.999317 0.911230 0.411886 -0.003238 -0.412140 0.910418 0.035781
-103.76915741 -107.61268616 -85.00968933 -87.502975 71.037598 176.280090 -0.021082 0.017824 0.999619 0.945732 0.324639 0.014157 -0.324457 0.945596 -0.023987
-104.87322998 -107.87356567 -84.94520569 -95.218765 79.223038 -174.832855 0.016840 0.002483 0.999855 0.982363 0.186211 -0.017008 -0.186011 0.982547 0.001141
-106.07985687 -107.78635406 -84.99633789 -99.359573 79.866234 -172.259857 0.023697 0.030334 0.999259 0.984400 0.173605 -0.028614 -0.174647 0.984272 -0.026602
-107.23409271 -107.98609161 -84.94416046 -93.996490 60.492664 -175.906143 0.035162 0.007538 0.999353 0.870293 0.491337 -0.034327 -0.492212 0.870425 0.009388
-107.59783936 -108.45285034 -84.90962219 -94.655151 13.558515 -178.243927 0.029791 0.073960 0.996816 0.234438 0.968924 -0.078897 -0.971538 0.236641 0.010702
-107.32039642 -108.60491180 -84.95002747 -89.839783 -36.047352 179.879456 -0.001701 -0.004034 0.999990 -0.588454 0.808528 0.002261 -0.807960 -0.589223 -0.004101
-106.22418976 -108.22594452 -84.96990204 -91.759529 -63.988396 179.092010 -0.006950 0.016466 0.999840 -0.898705 0.438346 -0.013466 -0.438211 -0.898794 0.011844
-104.91964722 -108.06382751 -85.03450012 -90.791412 -86.478752 -177.705673 0.002459 0.053755 0.998551 -0.998112 0.061413 -0.000848 -0.061951 -0.996657 0.053256
-103.49906158 -108.16986847 -85.01607513 95.270706 -80.349823 5.788579 -0.016907 0.007617 0.999828 -0.985850 -0.166923 -0.015399 0.166782 -0.985941 0.010211
-102.00937653 -108.02888489 -84.98532104 92.194717 -82.419136 3.236942 -0.007449 0.017696 0.999816 -0.991260 -0.131829 -0.005052 0.132651 -0.990982 0.018950
-100.34718323 -108.16545105 -85.01843262 98.256660 -76.639771 8.203008 -0.032970 -0.004758 0.999445 -0.972937 -0.228677 -0.033184 0.229497 -0.973303 0.003531
-98.64602661 -108.08031464 -85.04955292 92.629730 -80.291382 3.714843 -0.010926 0.018011 0.999778 -0.985678 -0.168460 -0.007737 0.168265 -0.985550 0.019459
-97.04958344 -108.19538116 -85.12467194 103.032806 -81.055023 13.502595 -0.036304 0.005433 0.999326 -0.987838 -0.151481 -0.035063 0.151796 -0.988360 0.010120
-95.48085785 -108.15316772 -85.13686371 104.414047 -82.826752 15.194915 -0.032729 0.011641 0.999396 -0.992173 -0.120939 -0.031084 0.120085 -0.992626 0.016525
-94.10404205 -108.14850616 -85.14216614 116.024986 -85.144760 27.541195 -0.039136 0.024969 0.998922 -0.996412 -0.076056 -0.037136 0.074043 -0.996894 0.026827
-92.57773590 -108.19093323 -85.12886810 102.481628 -79.526588 14.084637 -0.044237 0.024016 0.998732 -0.983339 -0.177483 -0.039287 0.175825 -0.983919 0.031439
-91.19934082 -108.00095367 -85.12812042 110.425278 -85.601120 22.440338 -0.029278 0.034109 0.998989 -0.997054 -0.071877 -0.026767 0.070053 -0.996909 0.035565
-89.92019653 -108.02893829 -85.22039032 91.588142 -76.630928 1.286160 -0.005190 -0.005879 0.999969 -0.972901 -0.231134 -0.006408 0.230024 -0.973179 -0.003539
-89.22207642 -107.55262756 -85.19483948 92.865509 -50.508118 2.198232 -0.024394 -0.020391 0.999494 -0.771715 -0.635174 -0.031793 0.636526 -0.771254 -0.001375
-89.23876190 -107.02444458 -85.27271271 89.835800 1.638679 0.728596 -0.012711 0.002502 0.999916 0.028596 -0.999587 0.002865 0.999478 0.029486 0.013218
-90.03967285 -107.04814148 -85.26464081 89.533813 39.513607 -0.368855 0.004967 0.012232 0.999913 0.636261 -0.771448 0.006277 0.771670 0.635901 -0.012469
-91.35166168 -107.34059906 -85.19035339 92.220901 61.232407 -2.076095 0.017434 -0.006995 0.999824 0.876579 -0.480896 -0.018650 0.481358 0.876523 -0.001326
-92.68664551 -107.28450012 -85.24285889 101.104675 82.490837 -11.975261 0.027116 0.013448 0.999542 0.991424 -0.128238 -0.025170 0.127707 0.991672 -0.016657
-93.99956512 -107.35597992 -85.20915222 126.133377 84.810402 -36.588005 0.053914 0.005961 0.998528 0.995901 -0.073053 -0.053336 0.072819 0.997300 -0.009498
-95.05934143 -107.07579803 -85.18740845 99.589462 66.970299 -10.801035 0.073312 0.006418 0.997288 0.920302 -0.385742 -0.065170 0.383538 0.922848 -0.035343
-95.84148407 -106.42371368 -85.18663788 92.507317 52.589157 -6.711258 0.070999 0.049290 0.996258 0.794300 -0.606945 -0.026577 0.602806 0.793622 -0.082398
-96.47747803 -105.95248413 -85.16655731 90.450424 22.440310 -3.582484 0.057754 0.016005 0.998203 0.381721 -0.924249 -0.007266 0.922245 0.381940 -0.059886
-96.79925537 -105.27385712 -85.23280334 92.342857 8.713470 -1.530073 0.026393 -0.036823 0.998973 0.151493 -0.987632 -0.040407 0.987971 0.153130 -0.021552
-96.89002228 -104.48847961 -85.25530243 90.408127 5.387243 -3.429759 0.059561 -0.001494 0.998224 0.093887 -0.995558 -0.007092 0.993684 0.095223 -0.059375
-97.10546875 -103.80077362 -85.65135193 88.230438 -8.575521 -2.302821 0.039732 0.024866 0.998901 -0.149113 -0.988349 0.030535 0.987997 -0.150322 -0.035572
-97.08695221 -103.18672943 -86.12139130 90.818130 -5.471366 1.180815 -0.020514 -0.012311 0.999714 -0.095348 -0.995342 -0.014213 0.995175 -0.096377 0.018409
-97.08699036 -102.52240753 -86.59380341 90.676773 -6.504263 -0.308407 0.005348 -0.012421 0.999909 -0.113277 -0.993494 -0.011736 0.993423 -0.114249 -0.007617
-97.11550903 -101.79980469 -86.98218536 89.127090 0.462061 -0.954941 0.016666 0.015367 0.999743 0.008064 -0.999851 0.015234 0.999831 0.007006 -0.017014
-97.10633850 -101.13688660 -87.52737427 88.628784 -0.507558 -1.565336 0.027316 0.023679 0.999346 -0.008858 -0.999674 0.023929 0.999584 -0.009115 -0.027344
-97.18465424 -100.48774719 -87.88016510 91.917824 2.373501 -2.510771 0.043770 -0.031621 0.998541 0.041414 -0.998582 -0.033437 0.998115 0.043396 -0.043396
-97.19796753 -99.78443146 -88.36791992 91.105980 4.433184 -1.763353 0.030679 -0.016915 0.999386 0.077296 -0.996822 -0.019244 0.996479 0.078641 -0.029086
-97.34754944 -99.18439484 -88.64545441 91.948601 7.082695 -0.595052 0.010306 -0.032721 0.999411 0.123302 -0.991795 -0.033743 0.992280 0.123898 -0.005482
-97.42130280 -98.49641418 -89.06513977 91.405640 19.383451 1.780012 -0.029301 -0.034825 0.998964 0.331889 -0.943035 -0.023140 0.942411 0.332088 0.039748
-97.86144257 -97.69017029 -89.50868225 99.438568 28.437515 -3.843714 0.058946 -0.132131 0.989478 0.476200 -0.867432 -0.144203 0.877475 0.479472 0.012020
-98.45887756 -96.70977783 -89.50996399 100.298744 58.235485 -8.310852 0.076092 -0.055989 0.995528 0.850219 -0.517948 -0.094115 0.519624 0.854343 0.009448
-99.02770996 -96.40614319 -89.49079895 108.586380 74.670013 -18.308361 0.083049 -0.015446 0.996426 0.964419 -0.250589 -0.084266 0.250127 0.968195 -0.005984
-99.76068878 -96.70454407 -89.45716095 120.673447 77.606476 -30.842901 0.110035 -0.007318 0.993901 0.976697 -0.184597 -0.109490 0.183230 0.982988 -0.012676
-100.47534943 -97.05086517 -89.48174286 -145.823303 83.683601 -123.879341 0.091339 -0.002359 0.995817 0.993930 0.061803 -0.091020 -0.061533 0.998078 0.007300
-101.26522064 -97.53791809 -89.45620728 -102.639542 59.768574 -167.447632 0.109425 0.030363 0.993531 0.863999 0.491292 -0.110173 -0.492573 0.869805 0.028496
-101.58415985 -98.44779968 -89.48647308 -98.640907 42.266888 -172.705444 0.093961 0.064596 0.993478 0.672585 0.731620 -0.111182 -0.734380 0.678214 0.026679
-101.78506470 -99.45416260 -89.53546143 -94.677055 20.694981 -176.356979 0.059440 0.058995 0.996487 0.353393 0.932360 -0.076278 -0.933773 0.356155 0.034968
-101.86679077 -100.25117493 -89.59466553 -91.365341 -0.935126 -178.444580 0.027140 0.024262 0.999337 -0.016320 0.999583 -0.023824 -0.999505 -0.015283 0.027509
-101.65148926 -100.81639862 -89.96624756 -93.420380 -1.807194 177.561676 -0.042523 0.058268 0.997395 -0.031536 0.997722 -0.059632 -0.998566 -0.034578 -0.040865
-101.49063873 -101.42689514 -90.32470703 -92.352333 -5.777051 -178.082489 0.033291 0.044387 0.998460 -0.100658 0.994083 -0.040836 -0.994414 -0.098227 0.038629
-101.50060272 -102.14128876 -90.83428955 -89.664284 -4.851444 -179.242401 0.013175 -0.004741 0.999902 -0.084573 0.996400 0.005838 -0.996366 -0.084365 0.011747
-101.43659210 -102.72724915 -91.19326782 -90.833191 -4.322453 -179.352585 0.011267 0.015392 0.999818 -0.075370 0.997050 -0.014500 -0.997098 -0.075233 0.011656
-101.56330109 -103.39165497 -91.62580109 -87.703911 0.445259 -179.100449 0.015699 -0.040181 0.999069 0.007771 0.999167 0.040062 -0.999831 0.006992 0.016980
-101.49452972 -104.05897522 -92.02281952 -87.920143 2.057608 -178.963974 0.018069 -0.036935 0.999154 0.035904 0.998697 0.036269 -0.999160 0.036015 0.019551
-101.53180695 -104.65563202 -92.48179626 -89.692497 1.343597 -177.815186 0.038113 -0.006257 0.999254 0.023448 0.999711 0.005365 -0.998982 0.023810 0.038303
-101.58761597 -105.17572784 -92.80208588 -91.680359 11.495400 -178.171082 0.031275 0.022951 0.999247 0.199289 0.979519 -0.028735 -0.979580 0.199217 0.027112
-101.98450470 -105.88901520 -93.30173492 -90.124390 29.357325 -176.297363 0.056285 -0.029493 0.997979 0.490255 0.871577 -0.001892 -0.869691 0.489635 0.062418
-102.66848755 -106.48802948 -93.60022736 -88.962349 57.585709 178.804474 -0.011184 -0.000495 0.999937 0.844194 0.535949 0.009707 -0.537389 0.843308 -0.006768
-103.65115356 -106.90318298 -93.57905579 -91.778809 67.528984 178.793549 -0.008048 0.050481 0.998693 0.924073 0.382032 -0.011864 -0.382555 0.922634 -0.048978
-104.68655396 -107.28518677 -93.57503510 -94.003036 80.564491 -176.030457 0.011349 0.001519 0.999934 0.986471 0.163537 -0.011444 -0.162760 0.986665 0.001122
-105.81232452 -107.31624603 -93.53984833 144.000778 87.363342 -54.269161 0.037343 0.004179 0.999294 0.998941 -0.027039 -0.037217 0.027180 0.999618 -0.005033
-107.04598999 -107.20672607 -93.43869781 -124.877907 84.189873 -146.785248 0.055453 0.031332 0.997970 0.994863 0.083048 -0.057888 -0.085431 0.995977 -0.027035
-108.21262360 -107.46337128 -93.43205261 -105.343895 80.133675 -162.483505 0.051573 -0.033617 0.998103 0.985210 0.165242 -0.045341 -0.164074 0.985607 0.040728
-108.77305603 -107.73809052 -93.46714020 -91.428108 32.844776 -174.657288 0.078228 -0.025671 0.996605 0.542365 0.839882 -0.020939 -0.836224 0.542762 0.078351
-108.29787445 -107.93177795 -93.47537231 -89.690849 -10.281386 -177.969864 0.034856 0.000930 0.999392 -0.178483 0.983929 0.005309 -0.983285 -0.178885 0.033906
-107.02761078 -107.80577850 -93.47809601 -91.158386 -45.647789 179.496414 -0.006144 0.013932 0.999884 -0.715056 0.698924 -0.014133 -0.700124 -0.713988 0.006932
-105.68858337 -107.68192291 -93.57727814 -90.826530 -76.974693 -178.091003 0.007508 0.046869 0.998873 -0.974271 0.225358 -0.003251 -0.225317 -0.973127 0.047499
-104.24438477 -107.59201050 -93.61698914 91.150772 -85.285255 2.314209 -0.003319 0.020168 0.999791 -0.996616 -0.082178 -0.001651 0.082584 -0.996376 0.020378
-102.88688660 -107.46668243 -93.60204315 164.056076 -89.578644 75.174911 -0.007109 0.019519 0.999784 -0.999973 -0.002020 -0.007071 0.000997 -0.999820 0.018940
-101.37338257 -107.48763275 -93.60299683 108.472939 -83.132080 19.096376 -0.039122 0.008654 0.999197 -0.992824 -0.113419 -0.037890 0.112583 -0.993570 0.012023
-99.89595032 -107.30191040 -93.62939453 121.091377 -86.638420 32.267258 -0.031305 0.019735 0.999315 -0.998279 -0.050214 -0.030280 0.049041 -0.998556 0.021912
-98.44812012 -107.39059448 -93.68539429 115.687775 -83.357567 25.236681 -0.049318 -0.010452 0.998728 -0.993287 -0.104241 -0.050140 0.104515 -0.994509 -0.005387
-96.90342712 -107.36648560 -93.75167084 114.174095 -86.124252 24.932371 -0.028494 0.012354 0.999518 -0.997713 -0.061666 -0.027680 0.061786 -0.997997 0.013614
-95.51822662 -107.52174377 -93.79521942 -144.281815 -88.805801 126.418991 -0.016771 0.012333 0.999783 -0.999783 0.012167 -0.016921 -0.013011 -0.999831 0.013011
-94.03391266 -107.63288116 -93.78225708 116.258636 -86.212669 26.594126 -0.029570 0.004979 0.999550 -0.997816 -0.059237 -0.029224 0.059208 -0.998219 0.007271
-92.81603241 -107.51239014 -93.75231171 110.520432 -81.043701 21.643097 -0.057419 0.015381 0.998232 -0.987807 -0.145803 -0.054573 0.145811 -0.989028 0.023737
-91.78144836 -107.58123779 -93.82031250 92.492821 -57.702156 4.503681 -0.041957 0.022951 0.998856 -0.845282 -0.533815 -0.023240 0.533864 -0.844477 0.042986
-91.84568787 -107.40119171 -93.79498291 94.144836 -21.937012 1.060168 -0.017163 -0.065371 0.997713 -0.373587 -0.925169 -0.067045 0.927111 -0.374681 -0.008951
-92.71032715 -107.24979401 -93.78525543 94.073074 10.384705 -1.967942 0.033778 -0.064812 0.997326 0.180257 -0.981135 -0.069865 0.983090 0.181796 -0.022001
-93.60494995 -106.96573639 -93.80970001 95.942848 46.709740 -4.889748 0.058448 -0.041449 0.997430 0.727889 -0.682010 -0.070994 0.683029 0.730326 -0.009738
-94.47182465 -106.68471527 -93.82968903 97.213943 59.006969 -6.203630 0.055645 -0.032938 0.997907 0.857230 -0.510858 -0.064663 0.512919 0.858436 -0.001339
-95.50027466 -106.41761780 -93.76699829 93.628853 43.901981 -3.777310 0.047467 -0.017565 0.998718 0.693427 -0.719082 -0.045604 0.719460 0.694216 -0.021037
-96.37228394 -105.79959869 -93.76759338 93.969002 33.976040 -5.477208 0.079154 -0.015687 0.996739 0.558846 -0.827282 -0.057399 0.824756 0.562526 -0.057803
-97.14055634 -105.21736145 -93.76760864 93.099281 8.733675 -1.838901 0.031717 -0.049173 0.998287 0.151842 -0.986959 -0.053439 0.987866 0.153466 -0.023872
-97.37390900 -104.39428711 -93.85778809 90.206467 -3.380986 -1.951656 0.033997 -0.005610 0.999406 -0.058975 -0.998253 -0.003597 0.997665 -0.058561 -0.035137
-97.51879883 -103.78540039 -94.14400482 89.779739 -14.411386 -1.468699 0.024824 -0.002536 0.999689 -0.248882 -0.968527 0.003723 0.968313 -0.248441 -0.025450
-97.63933563 -103.13168335 -94.40250397 89.090530 -13.510562 -1.519578 0.025785 0.009672 0.999621 -0.233625 -0.972204 0.015433 0.972037 -0.233720 -0.022773
-97.67317963 -102.51347351 -94.88579559 91.688637 -10.300149 -0.324289 0.005569 -0.030479 0.999520 -0.178805 -0.983457 -0.028993 0.984055 -0.177565 -0.010310
-97.76401520 -101.84195709 -95.21109009 90.105103 -8.760417 -0.711510 0.012273 -0.003726 0.999918 -0.152303 -0.988332 -0.001813 0.988283 -0.152130 -0.012396
-97.66542816 -101.21550751 -95.66366577 89.400711 -4.649728 -1.037748 0.018052 0.008990 0.999797 -0.081064 -0.996654 0.010425 0.996606 -0.080285 -0.018198
-97.71855164 -100.55339813 -96.06002808 89.493401 -5.866418 -2.393040 0.041536 0.004566 0.999127 -0.102210 -0.994724 0.008795 0.993805 -0.103267 -0.041085
-97.63370514 -99.91815948 -96.53504181 90.236542 -3.124082 -1.556252 0.027118 -0.005607 0.999617 -0.054499 -0.998505 -0.004122 0.998206 -0.053758 -0.026352
-97.81251526 -99.28273010 -96.93335724 91.803604 0.543724 0.453364 -0.007912 -0.031548 0.999471 0.009490 -0.999460 -0.031472 0.999920 0.008937 0.008937
-97.94773865 -98.58903503 -97.38681030 91.118477 17.133871 0.768805 -0.012822 -0.023470 0.999642 0.294605 -0.955437 -0.018654 0.955694 0.293774 0.018593
-98.33505249 -98.05031586 -97.68588257 99.347725 24.787819 -1.899502 0.030093 -0.148624 0.988436 0.419259 -0.895811 -0.147461 0.907492 0.418536 0.035874
-98.86556244 -97.33229828 -97.74131012 101.419724 47.013123 -6.537845 0.077633 -0.115067 0.990320 0.731510 -0.668333 -0.134999 0.677982 0.734363 0.032419
-99.28698730 -96.96803284 -97.71772003 105.315262 70.469261 -12.349747 0.071502 -0.063604 0.995410 0.942462 -0.322440 -0.088302 0.325964 0.944655 0.037070
-100.01152802 -97.31555939 -97.71398926 -158.867538 83.437225 -107.888550 0.108766 -0.054338 0.992581 0.993447 0.041205 -0.106606 -0.035137 0.997665 0.058561
-100.76840973 -97.86931610 -97.75852966 -97.138100 64.136803 -172.111832 0.059867 0.000549 0.998206 0.899838 0.432843 -0.054206 -0.431600 0.901712 0.025232
-101.41088104 -98.56627655 -97.78086853 -92.994354 34.776897 -176.240997 0.053850 0.014782 0.998440 0.570382 0.820258 -0.042907 -0.819585 0.571901 0.034787
-101.49316406 -99.42478180 -97.79278564 -94.625412 23.253981 -175.003235 0.080024 0.046059 0.995728 0.394808 0.915772 -0.074090 -0.915119 0.399446 0.054774
-101.50289917 -100.20302582 -97.84144592 -91.847282 12.731840 -178.298309 0.028966 0.025680 0.999250 0.220388 0.974905 -0.031443 -0.975175 0.220278 0.022623
-101.57822418 -100.82607269 -98.27439880 -91.745216 0.021301 -178.496094 0.026245 0.030435 0.999192 0.000372 0.999536 -0.030455 -0.999633 0.001003 0.027071
-101.45014191 -101.35006714 -98.63265991 -94.815681 -1.039685 -178.340652 0.028952 0.084439 0.996008 -0.018145 0.996306 -0.083937 -0.999444 -0.015313 0.029606
-101.36656189 -101.92454529 -98.91614532 -93.539291 -9.977405 -178.971970 0.017670 0.064826 0.997740 -0.173260 0.982998 -0.060799 -0.984604 -0.172392 0.028925
-101.27066803 -102.51336670 -99.32106781 -91.596825 -10.001665 -174.540588 0.093695 0.044257 0.994617 -0.173677 0.984420 -0.027443 -0.980515 -0.169728 0.098906
-101.21512604 -103.18894196 -99.76304626 -89.073456 -5.664718 -175.758377 0.073601 -0.008827 0.997249 -0.098707 0.994986 0.016092 -0.992515 -0.098910 0.071625
-101.27503967 -103.82637024 -100.33788300 -91.495857 -0.109570 -176.480835 0.061382 0.026173 0.997771 -0.001912 0.999657 -0.026105 -0.998136 -0.001034 0.061026
-101.36770630 -104.52471924 -100.76804352 -92.672913 10.945263 -178.348801 0.028291 0.041150 0.998752 0.189871 0.980741 -0.045786 -0.981622 0.189804 0.019795
-101.55614471 -105.25569153 -101.30947113 -91.889732 22.413410 -178.548553 0.023416 0.023313 0.999454 0.381287 0.923954 -0.030485 -0.923813 0.382667 0.011596
-101.77645874 -105.91651154 -101.63810730 -94.420799 40.117867 -174.561920 0.072473 0.015850 0.997244 0.644362 0.762445 -0.058945 -0.762216 0.645826 0.044001
-102.29633331 -106.74364471 -101.77646637 -97.485924 54.282158 -172.181351 0.079418 0.019563 0.996649 0.811902 0.578818 -0.076058 -0.577038 0.816195 0.029199
-102.80789948 -107.31360626 -101.71930695 -102.211662 73.994766 -166.832977 0.062808 -0.008043 0.997993 0.961237 0.269486 -0.058322 -0.268630 0.962899 0.025759
-103.67731476 -107.39436340 -101.70212555 -96.425346 66.847755 -176.463898 0.024250 0.055342 0.998173 0.919463 0.390706 -0.044000 -0.392631 0.918783 -0.040982
-103.73722839 -107.92291260 -101.70815277 -94.577271 26.191008 -179.075989 0.014471 0.072698 0.997249 0.441365 0.894466 -0.071610 -0.897147 0.441285 -0.019878
-103.40916443 -108.18795776 -101.76461029 -90.363586 -21.015945 -178.313797 0.027468 0.016896 0.999480 -0.358628 0.933462 -0.005924 -0.933324 -0.357581 0.032273
-102.47875977 -108.01863098 -101.80635834 -88.500443 -50.883678 -174.938232 0.055664 0.042364 0.997550 -0.775867 0.630681 0.016510 -0.628339 -0.774999 0.067579
-101.35459900 -107.83357239 -101.82846069 -86.896828 -67.825294 -174.547272 0.035865 0.033978 0.998779 -0.926037 0.376879 0.020432 -0.374393 -0.926130 0.045978
-100.12532043 -107.88937378 -101.85410309 -95.228500 -82.117538 175.250626 -0.011355 0.009141 0.999894 -0.990551 0.136571 -0.012497 -0.136446 -0.990617 0.007765
-98.89883423 -107.78087616 -101.90430450 -93.697250 -80.813118 178.524002 -0.004112 0.039088 0.999227 -0.987173 0.159323 -0.010295 -0.160716 -0.986263 0.038156
-97.75559235 -107.86103821 -101.94041443 -102.348022 -80.046875 167.582275 -0.037168 0.001945 0.999307 -0.984949 0.168844 -0.036962 -0.168617 -0.985676 -0.003395
-96.60083771 -107.81087494 -101.88485718 -74.627472 -81.630173 -166.133896 0.034884 -0.028750 0.998978 -0.989349 0.140354 0.038588 -0.141066 -0.989717 -0.023699
-97.41151428 -108.17053223 -102.23130798 -89.219810 -83.419205 178.016998 -0.003966 -0.047980 0.998840 -0.993411 0.114594 0.001560 -0.114018 -0.992292 -0.048542
-94.14181519 -107.80413055 -102.11281586 -57.313816 -87.301353 -145.742920 0.026503 0.026888 0.999287 -0.998891 0.039627 0.025426 -0.038538 -0.998861 0.028122
-93.20043182 -107.60623932 -102.06896210 -65.367065 -85.774590 -153.602722 0.032758 0.029690 0.999022 -0.997282 0.066975 0.030710 -0.065210 -0.997390 0.031001
-92.52801514 -107.33247375 -102.04513550 85.194374 -73.586609 -4.788736 0.023589 0.003685 0.999715 -0.959248 -0.281572 0.023672 0.280979 -0.959707 -0.003649
-92.49822998 -106.92730713 -102.11523438 87.388054 -30.653639 -3.544918 0.053191 0.013993 0.998486 -0.509847 -0.859371 0.039203 0.859228 -0.510038 -0.039868
-93.47640228 -106.68471527 -102.07889557 88.498367 -5.300587 -2.841394 0.049359 0.021595 0.998548 -0.092381 -0.995382 0.026093 0.994408 -0.094230 -0.047670
-94.56286621 -106.52346802 -102.02830505 89.224495 18.620680 0.214063 -0.003541 0.012342 0.999918 0.319301 -0.947566 0.012826 0.947936 0.318457 -0.001239
-95.53823090 -106.22313690 -101.98437500 91.716835 35.401787 -1.007361 0.014330 -0.019775 0.999702 0.579307 -0.814744 -0.024421 0.815569 0.578659 -0.001362
-96.47844696 -105.89625549 -102.04943848 85.876633 25.564806 3.284785 -0.051689 0.047124 0.997551 0.431532 -0.899763 0.064865 0.900174 0.434796 0.025263
-96.93518066 -105.34706116 -102.08255768 87.826180 13.259883 2.136372 -0.036284 0.029361 0.998910 0.229368 -0.972639 0.036920 0.972871 0.229689 0.027659
-97.29161835 -104.70480347 -102.00114441 89.185188 5.152322 -1.646001 0.028608 0.016794 0.999450 0.089804 -0.995859 0.014163 0.995481 0.090300 -0.029375
-97.42996979 -104.28255463 -101.99694061 89.648666 -2.955130 0.015128 -0.000264 0.006145 0.999981 -0.051554 -0.998651 0.006124 0.998629 -0.052343 0.001026
-97.26834869 -103.95565796 -102.01438904 88.514908 0.721745 -1.996117 0.034829 0.026340 0.999046 0.012596 -0.999585 0.025915 0.999299 0.011228 -0.035726
-97.36705780 -103.63861847 -102.23613739 89.206131 -5.630708 -0.178214 0.003095 0.013550 0.999903 -0.098116 -0.995079 0.013788 0.995256 -0.097281 -0.001069
-97.55187225 -103.40630341 -102.29617310 93.698769 -9.530184 0.026458 -0.000455 -0.064435 0.997922 -0.165567 -0.984144 -0.063621 0.986312 -0.164574 -0.010215
-97.51607513 -103.05020142 -102.48669434 93.943810 -6.944935 1.436984 -0.024893 -0.065731 0.997527 -0.120915 -0.990312 -0.068273 0.992328 -0.122523 0.016557
-97.41130066 -102.55966187 -102.79476166 91.886452 -7.113442 -1.178546 0.020410 -0.035457 0.999163 -0.123834 -0.991765 -0.032665 0.992004 -0.123583 -0.025607
-97.52994537 -102.09226990 -103.16855621 92.915947 -10.558326 -3.034619 0.052043 -0.060487 0.996811 -0.183236 -0.981796 -0.050010 0.981527 -0.180525 -0.063363
-97.45661926 -101.61390686 -103.50167084 94.390823 -10.123150 -0.622990 0.010704 -0.078460 0.996860 -0.175764 -0.981543 -0.075368 0.984401 -0.174261 -0.024235
-97.33557129 -101.13591766 -103.66625214 89.757858 -12.830156 -2.424625 0.041249 -0.005172 0.999135 -0.222062 -0.975024 0.004121 0.974368 -0.220953 -0.042259
-97.50167084 -100.69512177 -104.02017975 90.941612 -11.573744 -2.412193 0.041233 -0.024862 0.998840 -0.200629 -0.979535 -0.016099 0.978879 -0.199600 -0.044223
-97.45658875 -100.23805237 -104.39791107 93.191971 -8.858723 -0.548459 0.009458 -0.057151 0.998321 -0.153999 -0.986538 -0.055017 0.988071 -0.152794 -0.019241
-97.44782257 -99.72963715 -104.66163635 89.477615 -10.069269 0.582754 -0.010014 0.010895 0.999891 -0.174839 -0.984556 0.008977 0.984498 -0.174946 0.012578
-97.65824127 -99.20967102 -104.90147400 89.403236 -6.005542 -0.272389 0.004728 0.009918 0.999940 -0.104625 -0.994458 0.010358 0.994518 -0.104516 -0.003232
-97.79035187 -98.71006012 -105.32999420 91.232574 3.398634 0.395157 -0.006885 -0.021919 0.999736 0.059283 -0.998010 -0.021473 0.998212 0.059331 0.007286
-98.21662140 -98.19876099 -105.58598328 92.082306 10.703968 0.394813 -0.006771 -0.037613 0.999269 0.185735 -0.981951 -0.035703 0.982491 0.185877 0.012700
-98.83473969 -97.58084106 -105.71784973 92.844200 21.078564 -2.528580 0.041166 -0.033725 0.998583 0.359648 -0.931939 -0.046300 0.931736 0.362127 -0.027063
-99.56612396 -97.15995026 -105.69374847 98.043793 49.013432 -4.727836 0.054060 -0.077848 0.995498 0.754863 -0.649429 -0.091778 0.653253 0.756766 0.023780
-100.35727692 -97.29009247 -105.64760590 101.046158 66.835251 -8.446864 0.057784 -0.056974 0.996702 0.919378 -0.386088 -0.075371 0.388993 0.920748 0.030124
-101.09399414 -97.82989502 -105.62902832 179.294479 85.949860 -88.679245 0.070611 -0.010769 0.997446 0.997503 -0.000870 -0.070624 0.000989 0.999940 0.010880
-101.68032837 -98.31688690 -105.63726807 -102.530403 60.257481 -168.675629 0.097416 0.046300 0.994166 0.868264 0.484286 -0.107633 -0.486764 0.873508 0.006668
-101.99089813 -99.08749390 -105.67974091 -93.180199 42.090954 -175.406097 0.059436 0.001694 0.998231 0.670309 0.740939 -0.041168 -0.739673 0.671526 0.044011
-101.92455292 -99.85343933 -105.65541840 -93.434891 28.869732 -175.633789 0.066669 0.023049 0.997509 0.482820 0.874147 -0.052468 -0.873667 0.484151 0.048004
-101.92824554 -100.51069641 -106.05439758 -96.928314 12.949375 -174.380005 0.095440 0.098263 0.990573 0.224090 0.967452 -0.117560 -0.969924 0.232832 0.070970
-101.84627533 -101.08288574 -106.39218903 -94.404350 11.816169 -175.060120 0.084286 0.058929 0.994698 0.204772 0.975919 -0.075167 -0.975247 0.209770 0.069923
-101.82192993 -101.70324707 -106.70790100 -91.231133 8.749888 -177.194519 0.048376 0.014016 0.998731 0.152121 0.988134 -0.021236 -0.987055 0.153902 0.045129
-101.79091644 -102.23303986 -107.09619904 -91.312080 4.986479 -177.027191 0.051666 0.018361 0.998496 0.086921 0.995954 -0.022812 -0.994925 0.087429 0.049802
-101.60419464 -102.77884674 -107.43106842 -91.316925 4.964291 -175.266678 0.082209 0.015765 0.996490 0.086535 0.995986 -0.022896 -0.992912 0.087376 0.080568
-101.65381622 -103.35530853 -107.82250214 -90.410843 5.151159 -175.461868 0.078803 0.000044 0.996890 0.089784 0.995936 -0.007142 -0.992892 0.089644 0.078297
-101.51704407 -103.85675812 -108.19086456 -91.589317 9.849752 -176.691147 0.056867 0.017819 0.998223 0.171065 0.984881 -0.027326 -0.983793 0.171249 0.053146
-101.52085114 -104.49223328 -108.62889099 -91.742950 14.755837 -177.099274 0.048937 0.017493 0.998649 0.254700 0.966573 -0.029412 -0.965885 0.255349 0.043175
-101.59584045 -105.00903320 -109.02465057 -92.634483 33.754665 -176.787842 0.046587 0.014791 0.998805 0.555638 0.830546 -0.038216 -0.829278 0.557928 0.031842
-102.05236053 -105.63504028 -109.31801605 -95.083298 50.853874 -172.343018 0.084116 -0.015114 0.996341 0.775538 0.628817 -0.055936 -0.625664 0.777427 0.064428
-102.50032043 -106.27735138 -109.25144196 -100.981857 66.437370 -167.204636 0.088533 -0.013519 0.995982 0.916624 0.392431 -0.076152 -0.390301 0.919522 0.046307
-103.00881958 -106.68971252 -109.21643829 -104.377876 76.661766 -162.569244 0.069107 -0.045430 0.996574 0.973025 0.223473 -0.057286 -0.219262 0.973818 0.060021
-103.99343872 -106.80720520 -109.16202545 -104.364334 74.061607 -165.708618 0.067787 0.010466 0.997645 0.961558 0.266019 -0.068126 -0.267198 0.963605 0.008463
-104.87527466 -107.01844025 -109.14610291 -117.166122 79.746223 -152.703339 0.081634 0.004238 0.996653 0.984029 0.158372 -0.081274 -0.159086 0.987233 0.007898
-105.66629028 -107.12620544 -109.12191772 171.751404 83.942688 -79.499870 0.103756 -0.040074 0.993795 0.994417 -0.015139 -0.104432 0.019590 0.999080 0.038149
-106.16474152 -106.88230133 -109.06412506 104.818382 63.051579 -13.725101 0.107525 -0.043987 0.993229 0.891415 -0.438116 -0.115906 0.440346 0.897781 -0.009201
-106.15435028 -106.89332581 -109.05903625 90.968216 14.940145 -0.889821 0.015005 -0.012893 0.999804 0.257810 -0.966058 -0.016327 0.966358 0.256972 -0.010858
-105.39663696 -106.84332275 -109.10644531 88.732063 -25.408325 -1.009652 0.015916 0.014566 0.999767 -0.429066 -0.903052 0.019988 0.903379 -0.428745 -0.009178
-104.53857422 -106.47091675 -109.17839813 87.385880 -51.368176 -1.475567 0.016076 0.025499 0.999546 -0.781174 -0.623664 0.028474 0.623822 -0.781506 0.009682
-103.67568207 -106.08878326 -109.19908142 79.520622 -74.041321 -8.189107 0.039163 0.045360 0.998203 -0.961460 -0.270358 0.050007 0.271132 -0.961962 0.033427
-102.51421356 -105.83721161 -109.23839569 80.926826 -72.463959 -7.600078 0.039850 0.031777 0.998700 -0.953528 -0.297536 0.047515 0.299000 -0.954072 0.018610
-101.47884369 -105.58181000 -109.25239563 72.889816 -79.047493 -14.555156 0.047748 0.048954 0.997659 -0.981785 -0.181586 0.055899 0.184647 -0.982038 0.038811
-100.37471008 -105.42284393 -109.24745941 93.444275 -74.301254 5.424452 -0.025579 0.031034 0.999191 -0.962698 -0.270091 -0.016256 0.268813 -0.962522 0.035924
-99.47120667 -105.13886261 -109.26966858 110.214630 -81.466850 22.765135 -0.057417 0.040480 0.997529 -0.988930 -0.139242 -0.051271 0.136448 -0.989531 0.047011
-98.76436615 -105.01952362 -109.25667572 134.835251 -88.162697 43.744961 -0.022169 -0.019280 0.999568 -0.999486 -0.022736 -0.022606 0.023387 -0.999540 -0.019320
-98.09338379 -105.28765106 -109.25970459 -101.114738 -82.840263 162.309036 -0.037875 -0.112200 0.992964 -0.992203 0.122298 -0.024027 -0.118063 -0.986245 -0.115678
-97.73030090 -105.45800781 -109.24668884 -89.546272 -71.794075 177.968445 -0.011076 -0.041588 0.999073 -0.949940 0.312423 0.002474 -0.312124 -0.949111 -0.042041
-97.00668335 -106.06675720 -109.30677795 -85.572472 -79.194923 -174.224030 0.018867 0.021754 0.999585 -0.982271 0.186909 0.014472 -0.187538 -0.981953 0.024461
-96.30859375 -106.29489899 -109.36236572 -66.448280 -83.981712 -157.417389 0.040262 -0.018854 0.999011 -0.994488 0.096112 0.041894 -0.096177 -0.995265 -0.014048
-95.48143005 -106.27070618 -109.32390594 -81.550117 -78.808060 -171.626938 0.028264 -0.004080 0.999592 -0.980982 0.191989 0.028521 -0.191699 -0.981453 0.001148
-94.65904236 -106.20986938 -109.36612701 -90.545631 -81.285324 -179.360992 0.001690 0.020546 0.999788 -0.988455 0.151507 -0.001443 -0.150576 -0.988364 0.021511
-93.69579315 -106.22278595 -109.39485931 -68.497482 -83.763016 -157.698975 0.041226 0.011846 0.999080 -0.994081 0.101080 0.039822 -0.100887 -0.994765 0.016272
-92.76337433 -106.09709167 -109.38334656 -85.704498 -80.897881 -175.273621 0.013035 0.006485 0.999894 -0.987408 0.157750 0.011849 -0.156536 -0.987641 0.007883
-92.00109863 -106.03516388 -109.41918182 97.580795 -73.103981 8.121561 -0.041059 0.003393 0.999151 -0.956834 -0.288096 -0.038342 0.287198 -0.957737 0.016024
-92.02178192 -105.79817963 -109.42709351 93.888916 -34.322697 2.335626 -0.033657 -0.044840 0.998427 -0.563853 -0.823973 -0.056013 0.825507 -0.564391 0.001360
-92.70577240 -105.62473297 -109.40219879 91.565231 2.415269 -2.895301 0.050466 -0.025152 0.998409 0.042142 -0.998739 -0.027291 0.997792 0.043660 -0.050049
-93.34316254 -105.34156799 -109.46409607 92.875046 44.837723 1.431905 -0.017720 -0.067740 0.997546 0.705101 -0.708214 -0.035567 0.708747 0.702996 0.058942
-94.06824493 -105.43175507 -109.46244812 95.080803 60.857864 -1.222242 0.010387 -0.069983 0.997494 0.873414 -0.485064 -0.043127 0.487441 0.871318 0.056615
-94.92502594 -105.51380157 -109.42896271 93.314400 61.101551 -1.035334 0.008732 -0.042013 0.999079 0.875478 -0.482450 -0.027940 0.481944 0.875645 0.031225
-95.74942780 -105.45198059 -109.37220764 98.895554 63.108761 -8.605515 0.067678 -0.021048 0.997485 0.891867 -0.446858 -0.069941 0.447710 0.894100 -0.011886
-96.57743073 -105.50528717 -109.31771851 93.440170 47.279335 -5.907504 0.069825 0.015790 0.997434 0.734670 -0.677202 -0.040710 0.675141 0.735344 -0.058770
-97.21610260 -105.30631256 -109.33255005 92.108589 35.070866 -6.860935 0.097771 0.032064 0.994692 0.574589 -0.817888 -0.030113 0.812430 0.574928 -0.097028
-97.69420624 -105.03753662 -109.31317139 90.702698 16.770247 -7.053585 0.117575 0.023257 0.992792 0.288535 -0.957397 -0.011742 0.950441 0.287651 -0.117977
-97.94393921 -104.72995758 -109.31714630 88.440163 -4.099443 -5.175268 0.089972 0.020664 0.995730 -0.071488 -0.997072 0.027151 0.993325 -0.073287 -0.089072
-98.29414368 -103.99357605 -109.32818604 87.845360 -7.255564 -3.990970 0.069042 0.028722 0.997200 -0.126295 -0.991291 0.037296 0.989566 -0.128170 -0.065817
-98.58141327 -103.59522247 -109.36391449 87.175842 -12.976048 -2.248670 0.038235 0.040433 0.998450 -0.224544 -0.973280 0.048013 0.973657 -0.226348 -0.027545
-98.13591766 -103.28385162 -109.72347260 87.957718 -19.370226 -0.348520 0.005738 0.033620 0.999418 -0.331671 -0.942796 0.033620 0.943547 -0.331179 0.006249
-97.62360382 -102.79414368 -109.97776031 90.247673 -18.005886 -0.531717 0.008826 -0.007191 0.999935 -0.309115 -0.951016 -0.004111 0.951075 -0.308758 -0.011160
-97.44269562 -102.27898407 -110.23833466 90.409973 -12.096360 -0.314184 0.005362 -0.008304 0.999951 -0.209556 -0.977772 -0.006996 0.977973 -0.208650 -0.005828
-97.23014832 -101.92408752 -110.69924927 87.313271 -4.578204 -0.789934 0.013743 0.045771 0.998857 -0.079820 -0.995714 0.046725 0.996780 -0.079615 -0.009554
-97.07047272 -101.79674530 -110.70980835 83.625763 -8.491356 -2.751113 0.047471 0.103851 0.993459 -0.147660 -0.982924 0.109805 0.987860 -0.152243 -0.030906
-97.16013336 -101.73158264 -110.68949127 85.697777 -10.220387 -0.559999 0.009619 0.073285 0.997265 -0.177435 -0.981359 0.073827 0.983919 -0.178584 0.003412
-97.17358398 -101.61345673 -110.76280975 83.995819 -6.838055 -2.658517 0.046053 0.098996 0.994022 -0.119063 -0.987440 0.103857 0.991901 -0.122166 -0.034745
-97.30057526 -101.18168640 -111.11218262 89.199265 -12.343468 0.529912 -0.009035 0.015951 0.999832 -0.213772 -0.976788 0.013652 0.977010 -0.212802 0.012933
-97.40814972 -100.49758911 -111.44013977 92.061867 -5.419953 0.327551 -0.005691 -0.035438 0.999356 -0.094455 -0.994885 -0.035818 0.995476 -0.094960 0.003201
-97.56499481 -99.88747406 -111.88226318 92.511795 -1.916866 1.949924 -0.034007 -0.042663 0.998511 -0.033449 -0.998480 -0.043801 0.998887 -0.034373 0.032289
-97.64123535 -99.16488647 -112.27606964 93.902969 6.310750 -1.551440 0.026910 -0.065073 0.997518 0.109921 -0.991635 -0.067655 0.993657 0.110894 -0.018665
-97.77217865 -98.42702484 -112.57382965 93.455353 9.028516 1.908433 -0.032890 -0.065454 0.997313 0.156926 -0.985815 -0.059524 0.987155 0.153918 0.042819
-97.77468109 -97.70820618 -112.94263458 97.953308 13.338159 -2.432431 0.041296 -0.128544 0.990844 0.230698 -0.963666 -0.134634 0.972213 0.233853 -0.010684
-98.06652832 -97.08225250 -112.90771484 96.049179 25.401621 -0.579907 0.009143 -0.101059 0.994838 0.428961 -0.898293 -0.095194 0.902989 0.428153 0.036013
-98.28504181 -96.65809631 -112.89230347 99.648903 44.402092 -3.991679 0.049734 -0.119186 0.991626 0.699689 -0.704340 -0.119749 0.712007 0.700592 0.047087
-98.48858643 -96.47520447 -112.95330811 101.786301 64.978012 -8.160755 0.060040 -0.076277 0.995277 0.906146 -0.414048 -0.086396 0.419243 0.906797 0.044201
-98.99052429 -96.69833374 -112.93979645 103.358757 69.137939 -10.337743 0.063906 -0.064149 0.995892 0.934440 -0.346484 -0.082281 0.350734 0.935723 0.037532
-99.52849579 -96.90975952 -112.93399048 103.479408 73.290291 -12.081912 0.060181 -0.032983 0.997642 0.957774 -0.279603 -0.067020 0.280670 0.959672 0.015933
-100.28540802 -97.15554810 -112.93280792 -131.642990 81.449730 -135.659103 0.103914 -0.041265 0.993730 0.988886 0.111106 -0.098794 -0.106821 0.992873 0.052848
-100.87251282 -97.54285431 -112.90023041 -105.533577 66.101883 -163.645370 0.114072 0.008930 0.993432 0.914267 0.390314 -0.108490 -0.387636 0.921129 0.035479
-101.28726959 -98.25627899 -112.89916992 -99.831367 56.274960 -168.519897 0.110502 0.004230 0.993867 0.831712 0.547055 -0.094801 -0.543049 0.837727 0.057532
-101.68241119 -98.87979126 -112.92219543 -94.626671 31.386459 -174.907684 0.075773 0.034268 0.996536 0.520808 0.850892 -0.068860 -0.850907 0.523315 0.045807
-101.68410492 -99.51011658 -112.93162537 -93.530830 23.266481 -175.453552 0.072821 0.030140 0.996889 0.395008 0.916934 -0.056577 -0.916094 0.397197 0.054832
-101.56409454 -99.98674774 -112.92131805 -94.042870 18.983477 -175.629730 0.072057 0.045572 0.996359 0.325295 0.943259 -0.066668 -0.942592 0.329713 0.053013
-101.62658691 -100.46336365 -113.29183960 -94.689720 7.606291 -175.500931 0.077753 0.071159 0.994430 0.132365 0.987883 -0.081040 -0.988083 0.138822 0.066494
-101.61940765 -100.99788666 -113.59807587 -92.036766 7.773164 -177.146469 0.049326 0.028768 0.998368 0.135252 0.990185 -0.035214 -0.989682 0.136153 0.044622
-101.57993317 -101.47967529 -113.85317230 -93.049919 8.136835 -176.660843 0.057660 0.044883 0.997327 0.141538 0.988531 -0.052670 -0.988258 0.144482 0.049702
-101.60424042 -101.99429321 -114.24144745 -89.788368 4.023830 -178.207458 0.031203 -0.005887 0.999496 0.070171 0.997528 0.003685 -0.997078 0.069763 0.031125
-101.43991089 -102.46618652 -114.57354736 -90.712166 2.904799 -178.157349 0.032113 0.010794 0.999426 0.050677 0.998638 -0.012413 -0.998190 0.051758 0.030632
-101.48897552 -102.96623230 -115.03581238 -92.110542 2.178053 -176.993332 0.052414 0.034785 0.998019 0.038005 0.998600 -0.036801 -0.997977 0.039324 0.049952
-101.40478516 -103.46900177 -115.41036224 -91.616035 7.620318 -179.245178 0.013057 0.026453 0.999565 0.132608 0.990774 -0.027952 -0.990935 0.133970 0.009965
-101.37167358 -104.02275085 -115.71910095 -90.528114 9.196776 -176.749283 0.055976 0.000140 0.998432 0.159826 0.987103 -0.009099 -0.985492 0.160538 0.055075
-101.48741913 -104.56611633 -116.03315735 -89.483650 19.683661 -179.022385 0.016065 -0.014757 0.999762 0.336827 0.941528 0.008485 -0.941715 0.335874 0.019012
-101.78322601 -105.07790375 -116.28429413 -90.377747 36.522758 179.826309 -0.002436 0.008397 0.999962 0.595142 0.803603 -0.005298 -0.803757 0.594918 -0.006870
-102.38740540 -105.69437408 -116.47720337 -89.532951 50.709259 178.581314 -0.015678 0.011012 0.999816 0.773943 0.633235 0.005162 -0.633892 0.773209 -0.018111
